13.091069 0.305469 0.289877
16.410856 -4.270937 -0.691954
15.131289 -5.702343 1.033182
13.800508 -5.308749 1.033182
16.881294 3.927851 -0.610390
13.041997 0.304336 0.338949
16.408232 -4.501679 -0.760616
46.863762 2.031797 -6.879879
16.394892 5.340898 1.033182
37.760185 16.302578 -6.173625
11.538466 0.269375 0.360885
34.328388 15.642383 -3.404435
16.406864 -4.621992 -0.055742
10.045261 0.234414 0.334724
10.038214 0.234258 0.376007
10.027658 0.234102 0.416737
11.238623 5.028750 1.033182
54.773144 -9.690858 1.033182
8.548699 0.199336 0.331008
11.138657 -1.892344 0.471467
7.114504 0.166094 0.265240
13.601992 1.860977 0.416737
62.422714 20.335039 -7.527258
7.038800 0.164297 0.340955
5.292461 -0.648711 0.095321
16.509748 4.423164 -4.831107
7.037983 0.164297 0.401529
13.835459 3.902734 1.033182
96.105270 0.977578 1.033182
7.869189 -1.715430 0.416737
6.468421 0.150742 0.416737
7.042159 -0.440547 0.374584
5.710786 0.133203 0.258589
7.178116 -2.386211 0.714116
5.619106 0.131055 0.260631
5.599464 0.130586 0.280278
5.579917 0.130117 0.299827
95.043495 14.280468 1.033182
16.745222 1.283125 -5.277450
80.415993 12.082656 1.033172
69.688286 10.470781 1.033182
16.352089 -3.339297 1.033182
6.902871 -1.699922 0.416737
46.626263 3.573164 0.686000
13.040545 -0.382539 0.339018
61.484131 9.238124 1.033182
14.285869 -3.814531 1.033182
36.014198 5.411211 1.033182
33.684956 5.061250 1.033182
31.637695 4.753633 1.033182
5.176465 -0.775937 0.095321
29.824062 4.481132 1.033182
28.206190 4.238047 1.033182
19.345736 1.482500 0.416737
92.983940 -16.451286 -11.504465
26.753942 4.019844 1.033182
14.756027 -1.313906 0.416737
16.402927 -4.968086 -5.287311
12.492138 3.346953 1.033182
23.170147 3.481367 1.033182
11.091914 2.971797 1.033182
22.178370 3.332383 1.033182
46.440556 0.472344 -5.467109
8.398613 1.953984 0.416770
20.427500 3.069297 1.033182
36.877377 -13.061796 1.033182
13.464008 2.023008 0.460693
28.286543 -3.663359 1.033182
16.406864 -4.621992 -5.413823
11.836393 1.778516 0.416737
6.842201 1.929844 0.416770
11.121474 1.671094 0.416737
10.794915 1.622031 0.416737
46.228001 -5.666407 0.678594
16.512417 4.657696 -1.535602
10.195126 1.531875 0.416737
16.151592 -4.203281 1.033182
9.919050 1.490430 0.416737
16.511127 4.544570 -4.105499
9.657205 1.451055 0.416737
31.353012 14.788086 -0.360363
5.528151 1.286211 0.349286
46.729748 -1.074297 -6.468835
15.902217 2.931445 1.033182
8.614950 1.294219 0.321799
6.517484 -1.605039 0.416737
8.532459 1.281797 0.381010
7.158801 1.075664 0.258589
5.583586 -1.691328 0.416737
13.039007 0.221602 0.392907
16.413464 -4.041679 -0.484091
7.070932 1.062461 0.302622
7.030143 1.056094 0.416737
6.894501 1.035703 0.416737
4.730175 0.710703 0.030061
6.170968 -1.519687 0.416737
4.342227 0.652422 0.030061
11.603164 0.969023 0.276655
16.512415 4.657695 -5.667915
95.121689 5.379336 -4.486635
28.887548 14.815196 -0.544172
10.086855 3.732578 1.033182
16.512417 4.657696 -5.592350
9.263662 2.947969 1.033182
4.840439 0.499414 0.135903
16.512417 4.657696 -5.516945
16.512417 4.657696 -5.366608
30.714672 15.752226 -4.645138
16.512417 4.657696 -5.142237
16.512417 4.657696 -4.993377
59.163212 21.467577 -16.902990
16.512417 4.657696 -4.919155
32.813206 15.203750 -1.370197
5.791513 -0.632617 0.210346
12.731184 -1.221289 0.416737
29.003839 15.107694 -1.213967
12.975713 4.129258 1.033182
5.730986 -1.530508 0.416737
16.512417 4.657696 -4.845067
17.923918 0.540820 0.223883
16.512417 4.657696 -4.771112
16.512417 4.657696 -4.403205
16.512417 4.657696 -4.256863
8.829707 3.604492 1.033182
16.512417 4.657696 -4.110960
16.509748 4.423164 0.018015
76.463730 -5.795039 -6.688747
16.512417 4.657696 -3.892876
16.512417 4.657696 -3.675654
16.512417 4.657696 -3.603426
15.205049 -5.502656 1.033182
16.512415 4.657695 -3.387242
15.251963 -3.645234 1.033182
16.512417 4.657696 -3.243512
92.907921 -18.360546 -0.170334
16.512417 4.657696 -3.028452
38.474106 7.092344 1.033182
29.528095 15.380781 -2.726281
16.512417 4.657696 -2.956899
16.409595 -4.381797 -3.436001
5.543233 0.536484 0.030061
8.459717 3.584101 1.033182
16.512417 4.657696 -2.813975
16.512417 4.657696 -2.671282
13.580615 -4.713554 1.033182
77.482727 1.317188 -1.306242
16.512415 4.657695 -2.457626
39.586494 16.476250 -6.566945
16.512417 4.657696 -2.386501
16.512417 4.657696 -2.315418
6.954185 1.475586 0.416737
16.512415 4.657695 -2.173368
96.020058 4.162969 1.033182
16.410856 -4.270898 -3.077376
16.512417 4.657696 -1.960552
10.204627 1.467266 0.416737
16.512417 4.657696 -1.889672
18.063078 3.833320 1.033182
16.512417 4.657696 -1.818817
16.512417 4.657696 -1.606379
33.617329 -5.492421 1.033182
6.076680 -0.786992 0.095321
16.405590 -4.734023 0.158380
16.512415 4.657695 -1.394083
6.580779 0.330117 0.416737
95.447693 9.848085 -13.276396
16.512417 4.657696 -1.252598
16.512417 4.657696 -1.181863
16.406864 -4.621992 0.581131
16.512417 4.657696 -1.111128
16.509748 4.423164 0.301537
16.512417 4.657696 -1.040392
16.881296 3.927851 -1.611083
16.512417 4.657696 -0.757389
47.048008 17.409687 -5.813508
8.490915 -1.502500 0.416737
16.508467 4.310898 -0.689150
11.017148 4.076797 1.033182
16.512417 4.657696 -0.686612
49.716381 -7.774531 1.033182
16.512417 4.657696 -0.474174
92.088425 -19.461601 -0.176336
92.486115 -18.277187 -16.237562
16.512417 4.657696 -0.403319
8.458379 4.405859 1.033182
16.512417 4.657696 -0.332439
7.248543 1.486406 0.416737
21.321081 9.715391 1.033182
16.512417 4.657696 -0.190593
46.690022 16.941641 -3.708517
11.600731 1.196992 0.278949
76.886711 2.319805 -7.343986
16.512417 4.657696 -0.048617
16.512415 4.657695 0.164635
31.248371 13.745079 0.896668
16.512417 4.657696 0.235806
16.413464 -4.041641 -0.763128
16.517914 5.141288 -0.039479
38.083202 16.442030 -7.086808
16.512415 4.657695 0.307023
16.512417 4.657696 0.663908
16.512417 4.657696 0.735462
16.404213 -4.855195 0.658718
16.512417 4.657696 0.807080
45.290230 -7.694492 1.033182
16.062761 4.531015 1.033182
15.562832 4.390000 1.033182
14.231054 4.014336 1.033182
8.438499 2.322500 0.627298
6.842441 -0.656406 0.394755
13.460810 3.797070 1.033182
13.041911 0.393438 0.339211
4.583320 -0.686992 0.095321
11.849950 3.342656 1.033182
33.922703 15.717851 -3.848703
11.571817 3.264219 1.033182
7.050654 2.296641 0.612766
24.285004 -2.329687 0.616759
5.565668 1.217930 0.304835
10.039184 -0.093672 0.375806
16.515202 4.902930 -3.468776
6.773349 0.698867 0.030061
11.051836 3.117539 1.033182
10.351367 2.919961 1.033182
16.504469 3.959140 -1.881699
7.636704 2.153945 0.529825
49.157284 10.757969 1.033182
7.155470 2.018203 0.456239
6.735112 1.899609 0.422577
16.406864 -4.621992 -1.111358
6.673349 1.882187 0.438240
6.341597 1.788633 0.416737
68.073952 -2.461953 -0.725230
15.403056 -0.557070 0.095321
6.116602 1.725156 0.416737
5.906199 1.665820 0.416737
5.614947 1.583633 0.416737
29.809608 15.787110 -4.987482
97.588486 -14.627773 -8.687570
16.405588 -4.734023 -0.547876
41.433701 17.553905 -12.609348
46.626263 3.573164 -0.085937
39.424976 17.341679 -12.687239
16.402927 -4.968086 -0.333295
30.803135 16.044922 -6.266457
41.325497 17.508047 -12.382581
41.220039 17.463398 -12.157972
28.149561 -4.599062 1.033182
41.115360 17.419062 -11.934963
40.703926 17.244690 -11.058420
16.516506 5.017383 -1.680422
20.493399 6.521562 1.033182
46.877396 2.353203 -7.276587
40.402489 17.117031 -10.416584
46.623840 -3.533515 -7.253227
40.305229 17.075819 -10.205891
39.472359 16.722969 -8.371799
7.523601 1.700234 0.416737
39.383831 16.685469 -8.174377
39.234135 16.622030 -7.787306
12.073535 -3.656641 1.033182
39.085899 16.559217 -7.404142
38.939171 16.497070 -7.024787
7.062784 1.643164 0.416737
16.205526 -3.990273 1.033182
95.386459 11.773399 1.033182
38.866322 16.466211 -6.836506
38.721653 16.404921 -6.462658
19.070917 7.937500 1.033182
38.642933 16.371563 -6.276145
53.872910 20.354452 -15.564181
9.776134 -1.931914 0.490854
16.414810 -3.923320 -3.776792
38.486683 16.305351 -5.905939
11.768534 5.362578 1.033182
6.448192 -0.533203 0.416737
12.359794 6.545742 1.033182
38.409115 16.272499 -5.722228
18.856943 -6.267969 1.033182
9.048202 4.048633 1.033182
38.275410 16.215858 -5.359718
8.653320 4.009492 1.033182
96.439804 -14.455547 -4.967889
5.695642 0.436367 0.258589
38.210423 16.188320 -5.179787
38.145672 16.160898 -5.000607
37.953056 16.079296 -4.467482
37.845669 16.033827 -4.287600
23.068457 4.101484 1.033182
8.536777 0.428320 0.403093
13.284394 -2.990664 1.033182
37.726074 15.983125 -4.107814
37.489326 15.882852 -3.751945
37.177021 15.750507 -3.229172
36.771015 15.578515 -2.546603
36.274429 15.368124 -1.715070
36.186581 15.330898 -1.551633
31.563560 16.441015 -9.280481
37.125458 16.916916 -11.181790
36.099163 15.293867 -1.389006
36.012173 15.257031 -1.227170
16.402927 -4.968086 -3.889989
35.925591 15.220351 -1.066125
35.839424 15.183827 -0.905842
55.208656 17.568867 -0.788254
35.753666 15.147500 -0.746310
16.413464 -4.041641 -3.141884
5.817632 -1.596250 0.416737
35.583374 15.075351 -0.429494
9.108516 -2.826680 1.033182
41.833221 -5.978710 1.033182
35.292240 14.952031 -0.277277
8.225430 3.297187 1.033182
16.508469 4.310898 -4.458163
94.060608 9.103007 -0.951691
34.996082 14.826522 -0.127775
11.558279 1.118672 0.321449
34.411674 14.578945 0.163670
5.777100 0.519297 0.053960
93.586815 -19.111641 -18.463078
33.680950 14.269375 0.589051
33.438347 14.166563 0.726639
16.516506 5.017383 0.101102
8.144337 -1.221016 0.416737
32.061485 13.583281 0.937508
24.910849 10.553829 1.033182
6.249764 1.674219 0.416737
19.802204 8.389492 1.033182
19.020231 8.058202 1.033182
17.037743 -3.835820 -5.595248
76.051071 -7.295624 -1.618978
17.626301 7.467617 1.033182
12.241957 -1.749531 0.416774
15.367334 6.510586 1.033182
38.217831 8.363906 1.033182
9.341073 3.317461 1.033182
16.881290 3.927851 -4.214924
14.889043 6.307968 1.033182
93.335571 9.032851 -3.660024
6.991262 1.288555 0.416737
14.439150 6.117344 1.033182
9.255429 4.071172 1.033182
11.347051 3.040156 1.033182
14.015176 5.937734 1.033182
13.236464 5.607812 1.033182
16.516506 5.017383 -4.793304
12.538066 5.311953 1.033182
24.694895 11.049687 1.033172
37.938641 15.487344 -1.906896
11.908105 5.045039 1.033182
46.640121 3.894727 -4.141429
14.256200 3.924063 1.033182
11.336914 4.803047 1.033182
10.573348 4.479570 1.033182
30.728994 15.495468 -3.206359
10.340478 4.380898 1.033182
45.754734 4.112968 1.033182
35.537846 14.245235 0.670076
11.858613 4.302969 1.033182
70.063896 22.296211 -15.417590
19.065063 -0.308047 0.310656
9.903203 4.195625 1.033182
16.392000 3.137617 1.033182
9.697656 4.108555 1.033182
16.509747 4.423164 -1.040793
9.310165 3.944414 1.033182
7.335605 3.821055 1.033182
13.036394 -1.077656 0.397625
8.053913 -0.024336 0.416737
9.127333 3.866953 1.033182
41.705338 -6.813827 1.033182
8.781484 3.720430 1.033182
46.626270 3.573164 -6.471213
8.307081 3.519453 1.033182
8.016923 3.396484 1.033182
5.619622 -0.464609 0.265176
16.509748 4.423164 0.159686
14.532876 -1.101406 0.391427
5.088154 -0.727187 0.095321
10.481436 -4.031953 1.033182
7.615820 3.226562 1.033182
7.490361 3.173437 1.033182
16.406864 -4.621992 -5.713809
16.406864 -4.621992 -5.638570
38.772114 17.054531 -11.195637
16.406864 -4.621992 -5.563495
75.896561 -29.195822 1.033187
19.057985 -1.192266 0.391984
16.406864 -4.621992 -5.190462
16.406864 -4.621992 -5.116305
10.074794 0.975000 0.303001
31.883701 16.077734 -6.260100
16.406864 -4.621992 -5.042288
29.695936 11.903554 1.033182
16.406864 -4.621992 -4.968411
16.406864 -4.621992 -4.894670
7.967495 2.080430 0.487074
31.608646 -4.942851 1.033182
16.406864 -4.621992 -4.527913
50.186638 17.082968 -1.693000
16.404213 -4.855195 -2.595848
15.362686 -1.367930 0.416737
16.406864 -4.621992 -4.454933
8.057354 -1.703047 0.416737
6.301837 1.466133 0.416737
16.406864 -4.621992 -4.309316
16.406864 -4.621992 -4.091719
13.810635 6.399062 1.033182
13.602968 -3.251094 1.033182
16.406864 -4.621992 -4.019397
16.406864 -4.621992 -3.803023
8.436645 -1.783203 0.416774
12.685409 2.166211 0.534251
16.406864 -4.621992 -3.659239
20.544794 0.208984 0.338455
95.459129 11.168828 1.033172
16.406864 -4.621992 -3.158612
11.151943 1.453906 0.416737
5.968575 -1.426719 0.416737
16.406864 -4.621992 -2.945149
32.045883 16.159531 -6.891604
10.452754 5.360781 1.033182
81.188866 4.591484 1.033182
16.406862 -4.621992 -2.803154
8.081191 4.011055 1.033182
16.406864 -4.621992 -2.661386
16.406864 -4.621992 -2.449117
16.507097 4.190352 -4.306581
16.176472 4.106563 1.033182
16.406864 -4.621992 -2.096194
8.304546 1.417852 0.416737
16.406864 -4.621992 -2.025716
16.406862 -4.621992 -1.955269
16.507097 4.190352 -2.589332
89.974266 -18.373867 -1.335798
16.406864 -4.621992 -1.884848
16.406864 -4.621992 -1.322190
12.269571 -2.932422 1.033182
16.406864 -4.621992 -1.251910
16.509748 4.423164 -3.738150
46.743603 -0.755313 -7.056278
16.406864 -4.621992 -0.619262
17.603033 -0.404648 0.272133
6.742110 0.516680 0.108186
16.406864 -4.621992 -0.478538
93.621101 -14.640194 -7.210200
10.118139 0.438633 0.261243
16.406864 -4.621992 -0.408142
93.598923 -15.901717 -11.956944
16.406864 -4.621992 -0.267274
16.504469 3.959140 -3.221016
56.940506 21.070312 -16.879396
16.406864 -4.621992 -0.126287
39.139759 17.216249 -12.038762
16.406864 -4.621992 0.014840
10.532246 3.897383 1.033182
46.640125 3.894727 -2.787314
16.406864 -4.621992 0.085463
6.696039 -0.465039 0.416737
16.406864 -4.621992 0.226835
16.509748 4.423164 -3.522281
12.186973 4.328164 1.033182
7.130151 -2.212969 0.624695
46.228001 -5.666407 -6.255275
34.932076 16.476210 -8.643029
16.406864 -4.621992 0.297590
36.365562 16.271719 -6.516955
47.637371 3.020430 -4.794279
16.406864 -4.621992 0.368395
12.251924 1.676328 0.416737
16.406862 -4.621992 0.510163
93.550758 17.906445 1.013641
16.406864 -4.621992 0.652158
48.011017 17.766054 -6.761965
5.594424 1.031172 0.277666
16.406864 -4.621992 0.723248
55.009293 -8.245507 1.033177
16.406864 -4.621992 0.794401
16.406864 -4.621992 0.865622
55.131264 19.187111 -6.820021
7.844394 1.825039 0.416737
16.064335 -4.525313 1.033182
14.232450 -4.009258 1.033182
13.462128 -3.792266 1.033182
44.354858 18.106562 -13.350500
5.528151 1.286211 0.374339
16.409595 -4.381797 -1.882209
97.192047 12.670507 -2.560930
12.769228 -3.597070 1.033182
51.098667 16.646055 -0.371008
6.457216 0.409219 0.416737
12.142539 -3.420547 1.033182
33.883198 3.496055 1.033182
11.572950 -3.260078 1.033182
16.404213 -4.855195 -4.908341
14.309755 -3.723945 1.033182
7.620751 -1.191953 0.416737
9.931026 -2.797539 1.033182
37.620415 14.782695 0.103699
7.606306 -2.142930 0.591177
6.342371 -1.786875 0.416774
6.288000 -1.771562 0.431849
25.515575 -3.304492 1.033182
6.117204 -1.723437 0.416737
5.906781 -1.664180 0.416737
16.412212 -4.151836 -3.856444
16.509748 4.423164 0.372536
5.806598 -1.635937 0.416737
46.636604 -3.237422 -6.860452
36.608887 -13.796445 1.033187
5.615501 -1.582109 0.416737
97.502914 -14.614961 -9.089939
94.528336 -14.169062 -7.263028
6.006677 -2.085039 0.557178
52.611771 18.684843 -6.805285
95.429276 -14.304102 -6.522802
16.404213 -4.855195 -0.829067
94.976845 -14.236290 -6.894580
68.605263 -3.386016 -0.155256
95.885880 -14.372578 -6.147637
16.408232 -4.501679 -2.517334
47.538593 -16.499765 1.033182
96.439857 -14.455586 -3.760424
95.048286 -14.247109 1.033187
69.691841 -10.446328 1.033187
61.487251 -9.216484 1.033182
6.986856 -0.622109 0.095321
49.764652 -7.459375 1.033182
5.607281 1.189844 0.263462
38.690063 -5.799375 1.033182
5.559915 -0.533437 0.325465
11.538788 -0.265195 0.360915
33.686718 -5.049374 1.033182
28.207655 -4.228125 1.033182
24.255156 -3.635625 1.033182
21.268427 -3.187968 1.033182
20.428564 -3.062070 1.033182
5.548702 -1.133242 0.370961
61.800911 6.803359 1.033182
19.651846 -2.945664 1.033182
96.530746 4.185039 -7.729484
18.931406 -2.837656 1.033182
46.240738 -5.370781 -3.547674
14.993547 -2.247422 0.643180
11.573404 -1.734727 0.431022
16.508467 4.310898 -2.379656
97.193520 10.028203 -15.550281
10.195661 -1.528203 0.416737
10.081851 0.304180 0.297928
9.172465 -1.375117 0.416737
45.127354 -8.598398 1.033182
8.732486 -1.309141 0.416737
8.527524 -1.278437 0.416737
6.781963 0.609648 0.030061
7.793059 -1.168359 0.416737
35.898823 6.130078 1.033182
16.517914 5.141288 -0.111075
5.477217 -0.821016 0.095321
4.573877 -0.747305 0.095321
5.273163 -0.790430 0.095321
4.992803 -0.748398 0.095321
20.406555 -1.416641 0.416737
4.905518 -0.735312 0.095321
55.247025 6.463984 1.033182
4.821054 -0.722656 0.095321
46.513264 18.277069 -11.704563
4.660088 -0.698516 0.095321
7.218746 -1.625352 0.416737
46.729843 -1.074297 -7.251221
46.729774 -1.074297 -6.664139
15.532489 4.496172 1.033182
76.754677 -1.764571 -6.695391
76.754646 -1.764571 -6.377300
16.513803 4.780039 0.595961
68.666801 -1.578632 -2.137680
31.697529 4.336758 1.033182
51.754753 19.151405 -10.447551
19.173752 7.685781 1.033182
68.380638 -1.572070 -1.851510
6.839650 -0.020703 0.416737
16.508469 4.310898 -1.956058
68.096855 -1.565547 -1.567739
13.089617 -0.383984 0.289944
68.073952 -1.565000 -1.006130
68.073952 -1.565000 -0.725393
68.144897 -1.566641 -0.162845
29.606045 -0.680664 0.258625
16.092903 -0.370000 0.284117
28.082392 4.992969 1.033182
98.149467 4.926876 -9.064231
16.035259 -0.368672 0.345668
28.120771 14.180273 0.608143
10.083286 -0.030195 0.297483
16.516506 5.017383 -1.822933
63.940815 21.764727 -15.416086
14.605033 -0.335781 0.273353
13.037959 -0.299805 0.392968
8.371728 -2.905625 1.033182
29.601536 15.676913 -4.402092
11.538788 -0.265195 0.409338
10.046472 -0.231016 0.334890
28.428242 -10.069140 1.033182
30.146460 15.702851 -4.450158
16.881281 3.927851 -3.337521
35.454960 15.307343 -1.544611
10.039590 -0.230820 0.376203
8.550418 -0.196758 0.331293
11.674668 -2.874648 1.033182
66.872849 -22.228359 1.033187
8.539939 -0.196523 0.402126
8.233149 -0.189492 0.416737
7.116413 -0.163594 0.265607
33.752598 15.380000 -2.140783
5.574632 1.027539 0.297490
7.040669 -0.161836 0.341338
7.040235 -0.161836 0.371602
16.513803 4.780039 -5.225175
6.970050 -0.160469 0.416737
46.653008 4.193632 -2.982054
16.323164 5.556250 1.033182
6.710380 -0.154492 0.416737
6.468475 -0.148906 0.416737
28.227324 14.949140 -0.817316
5.710832 -0.131406 0.258589
16.404213 -4.855195 -3.094471
87.835861 19.222656 0.521805
5.581669 -0.128438 0.300270
5.562206 -0.127969 0.319730
45.177635 15.377968 0.132654
5.542836 -0.127539 0.339096
16.345808 1.686406 -5.477060
6.016096 -1.780781 0.424216
4.865966 0.502070 0.121119
7.632227 3.536367 1.033182
14.709602 1.917656 0.418812
6.457559 -0.404219 0.416737
16.345808 1.686406 -5.116696
22.180489 7.549999 1.033182
16.345808 1.686406 -4.973572
12.188115 -3.254375 1.033182
16.345810 1.686406 -4.902218
8.679667 -3.012500 1.033182
17.205957 1.775156 -4.726362
97.849007 10.095820 -16.062050
10.963994 -4.217578 1.033182
93.634239 10.955196 -5.619563
18.138449 8.116016 1.033182
95.753769 9.879648 -14.122576
16.410856 -4.270898 0.926160
95.600395 9.863827 -13.698582
92.120766 -19.468439 -14.629990
95.295639 9.832382 -12.855996
94.993423 9.801171 -12.020442
44.093891 15.659725 -0.664240
14.640117 -0.722578 0.095321
94.843239 9.785703 -11.605242
94.693687 9.770274 -11.191724
5.528799 1.209844 0.370003
94.128448 9.711954 -9.556444
93.799202 9.678007 -7.961811
93.554276 9.652734 -6.775660
93.310997 9.627617 -5.597425
93.230263 9.619258 -5.206363
6.511426 0.498984 0.205067
93.149673 9.610976 -4.816119
93.118713 9.607773 -4.428417
93.100952 9.605937 -4.041494
93.083183 9.604101 -3.654815
16.504469 3.959180 -3.720062
94.168915 9.716132 -0.951343
95.126564 9.814921 -0.555079
6.711808 0.068047 0.416737
16.404213 -4.855195 -5.205212
64.522507 22.455467 -18.849953
64.973312 21.165897 -10.932278
11.240030 3.414609 1.033182
97.506905 10.060547 0.268086
95.602753 9.864180 1.033182
80.889206 8.346054 1.033182
16.516506 5.017383 -0.256113
22.201708 -3.173007 1.033182
5.562247 -0.201250 0.320311
7.807773 3.129766 1.033182
76.051071 -7.295624 -0.043971
55.330158 5.708906 1.033182
15.645097 7.249063 1.033182
91.976891 -16.273125 -3.650207
45.696644 4.714922 1.033182
16.409595 -4.381797 -5.176011
31.823866 3.283594 1.033182
11.186232 -2.210586 0.630592
17.496496 1.805195 0.416737
16.993778 5.407890 1.033182
16.408232 -4.501679 -4.887873
16.714697 1.724531 0.416737
14.736179 1.520469 0.416737
9.811026 4.947344 1.033182
16.881281 3.927851 -5.485627
16.121017 4.319180 1.033182
11.537912 1.190508 0.368402
10.111179 1.043242 0.266416
10.073824 1.039375 0.303780
38.798271 -5.024765 1.033182
16.306709 -3.554219 1.033182
9.977420 1.029492 0.416737
5.886259 0.726523 0.030061
9.714033 1.002344 0.416737
52.086655 17.729687 -2.848429
13.079912 3.786250 1.033182
6.610781 0.682070 0.030061
46.640121 3.894765 -3.947730
8.247743 3.240937 1.033182
8.225742 0.521563 0.138058
6.165537 0.636133 0.030061
15.408749 4.903515 1.033182
31.281319 16.293983 -8.143410
6.742091 1.151055 0.416737
92.398857 19.608593 0.216541
9.595049 -3.189336 1.033182
18.444462 9.300859 1.033182
5.322334 0.549141 0.030061
5.219638 0.538555 0.030061
4.970254 0.512812 0.060719
4.943848 0.510078 0.076016
4.891709 0.504727 0.106214
91.009583 -30.893127 1.033182
16.881281 3.927851 -5.790660
28.491465 -9.888828 1.033182
7.090735 -0.066133 0.290612
46.640125 3.894765 0.687548
5.675658 1.723984 0.416737
16.881290 3.927851 -5.561646
16.881269 3.927851 -5.334061
16.881269 3.927851 -5.258506
9.538828 4.968671 1.033182
46.254459 -5.052539 -3.738925
16.881281 3.927851 -5.183102
8.369277 2.912773 1.033182
16.881283 3.927851 -4.733598
9.243327 -2.081133 0.571175
16.881281 3.927851 -4.659143
36.252876 15.651835 -3.020148
21.033468 7.783281 1.033182
90.570068 -19.140741 -8.604789
28.518913 15.103555 -1.213078
16.881277 3.927851 -4.510601
16.410856 -4.270898 -3.148230
16.100842 1.020859 0.287318
16.881281 3.927851 -4.362536
16.881294 3.927851 -4.141280
16.402927 -4.968086 -1.464503
16.507097 4.190352 0.650603
16.881298 3.927851 -3.994303
16.881268 3.927851 -3.920961
31.416300 15.593163 -3.681457
6.711279 -0.108672 0.416737
16.881277 3.927851 -3.701519
5.567650 -1.060937 0.322210
16.881296 3.927851 -2.975415
16.881269 3.927851 -2.903190
39.258438 16.339725 -5.810979
16.881277 3.927851 -2.614879
16.508467 4.310898 -1.674244
16.881281 3.927851 -2.471036
16.881292 3.927851 -2.183871
5.619969 -0.426016 0.264500
16.881292 3.927851 -2.112175
16.508469 4.310898 -4.022203
32.024475 0.122813 0.240711
16.412212 -4.151836 -4.071634
6.065634 2.244297 0.586493
16.881273 3.927851 -1.968877
16.881294 3.927851 -1.682601
4.419072 0.635352 0.030061
70.404358 3.052422 1.033182
16.881277 3.927851 -1.468093
28.072994 -2.499688 0.657028
16.881281 3.927851 -1.325146
20.590282 8.889648 1.033182
16.881271 3.927851 -1.039307
16.881290 3.927851 -0.896375
5.700895 0.361367 0.258589
16.881273 3.927851 -0.753410
19.411982 4.248281 1.033182
5.741465 1.335859 0.381040
16.881289 3.927851 -0.395718
20.288477 3.883437 1.033182
16.881273 3.927851 -0.324114
36.112644 14.741913 0.059940
16.208818 5.881446 1.033182
16.881296 3.927851 -0.037387
6.967666 -0.809258 0.095321
16.504469 3.959180 -4.952110
9.398631 1.477656 0.416737
16.881281 3.927851 0.178045
16.881283 3.927851 0.393885
16.881269 3.927851 0.610200
16.881296 3.927851 0.682425
7.879899 -1.665547 0.416737
51.238079 18.591913 -7.808732
16.881269 3.927851 0.754707
7.885127 4.043984 1.033182
91.745293 -18.130783 -13.752897
16.881277 3.927851 0.827059
16.255341 3.782383 1.033182
39.007950 2.989414 1.033182
5.195410 -0.636836 0.095321
15.749414 3.664648 1.033182
5.362285 -0.876094 0.095321
21.309990 -2.897227 1.033182
12.921045 3.006562 1.033182
12.596231 2.930976 1.033182
9.876381 2.298125 0.605597
19.279501 -7.416407 1.033182
16.515203 4.902930 -0.115381
16.412212 -4.151836 -0.971999
8.227141 1.914101 0.420850
16.516506 5.017383 -2.680617
11.873379 5.126250 1.033182
6.661720 1.549844 0.416737
16.516506 5.017383 -3.473382
6.537513 1.520937 0.416737
5.543595 -0.531875 0.345726
5.977008 1.390547 0.416737
57.723049 21.359882 -17.638380
11.120654 3.785390 1.033182
11.939843 4.969492 1.033182
61.039047 20.776991 -11.195461
56.709023 20.984648 -16.549690
10.760333 1.837500 0.416737
55.529106 20.548046 -14.936067
40.573322 16.886992 -8.740060
55.022453 20.360546 -14.301213
68.431534 -2.007148 0.123787
54.760273 20.263514 -13.985940
55.163155 -7.144180 1.033182
16.515203 4.902930 -1.039954
16.511127 4.544570 -1.323012
46.653011 4.193632 -0.277366
10.290928 3.126289 1.033182
53.973637 19.972422 -13.057248
52.738544 19.515429 -11.580803
52.498783 19.426680 -11.294817
51.494778 19.055157 -10.168185
17.355560 3.922461 -2.137863
50.565144 18.711172 -9.321808
8.386377 3.752500 1.033182
29.784369 15.514257 -3.434601
50.288857 18.608906 -9.051125
49.826031 18.437656 -8.531320
16.507097 4.190352 -5.186967
49.321972 18.251133 -8.015080
5.501416 -0.638984 0.095321
48.872810 18.084921 -7.515968
6.150429 -1.600820 0.416737
47.720997 17.658710 -6.515822
93.692665 -15.917656 -8.015153
47.434883 17.552851 -6.272883
46.864571 17.341797 -5.587580
46.682671 17.274492 -5.363586
9.674668 2.939062 1.033182
31.258871 -6.813282 1.033182
5.720404 -1.569570 0.416737
10.331191 2.990547 1.033182
45.783207 16.941641 -4.472551
16.413464 -4.041641 -4.499802
45.244385 16.742266 -4.033986
45.066994 16.676640 -3.823888
27.868475 -6.074297 1.033182
93.173447 -19.690901 -18.005842
44.865410 16.602032 -3.614113
13.766621 6.493242 1.033182
44.229942 16.366875 -2.994640
43.647285 16.151289 -2.202053
43.504063 16.098280 -2.007258
16.507097 4.190352 -1.181603
43.237343 15.999570 -1.811857
34.434727 16.241602 -6.919513
16.513803 4.780039 -2.460298
42.468018 15.714922 -1.426594
50.112083 17.440311 -3.225812
42.019451 15.548906 -1.054191
5.600962 -0.052344 0.280333
35.976402 5.657031 1.033182
41.815514 15.473438 -0.870812
21.692411 8.855313 1.033182
41.151005 15.227578 -0.332404
16.408232 -4.501679 0.294971
40.812534 15.102305 0.019920
40.344662 14.929180 0.184051
9.616601 -3.123750 1.033182
38.792576 14.354843 0.645174
5.894684 1.706094 0.416737
36.074154 13.348906 0.996541
46.769894 -0.140000 -7.058857
34.155045 12.638789 1.033182
31.459867 15.864023 -5.158430
28.284452 10.466406 1.033182
16.410856 -4.270898 -3.219151
19.372969 7.168828 1.033182
30.074951 15.927656 -5.734074
14.275087 5.282383 1.033182
16.511127 4.544570 0.375483
13.867412 5.131524 1.033182
13.481923 4.988906 1.033182
19.494354 -3.852500 1.033182
13.116845 4.853789 1.033182
12.441719 4.603984 1.033182
90.992775 -19.230038 -10.960229
4.913448 0.672227 0.030061
31.738937 14.462460 0.220233
12.128945 4.488242 1.033182
14.472519 4.714648 1.033182
46.609974 -3.852734 -6.667305
66.569511 22.659451 -19.059660
11.547159 4.272969 1.033182
16.509748 4.423164 -0.335512
16.509748 4.423164 -0.194201
46.927143 18.439688 -12.233557
11.276123 4.172656 1.033182
16.409595 -4.381797 -3.009556
33.720421 -4.819258 1.033182
9.676309 3.580664 1.033182
92.117615 -16.298046 -10.628000
9.296601 3.440156 1.033182
94.641220 -15.462460 -11.665490
91.122437 -18.608358 -10.960281
7.037177 0.305117 0.341604
9.117226 3.373789 1.033182
8.777558 3.248086 1.033182
8.165595 3.021641 1.033182
44.585381 17.871952 -11.501467
6.437448 2.381914 0.662425
10.157100 4.790781 1.033182
4.423310 0.605195 0.030061
14.518428 5.926758 1.033182
31.899872 16.616171 -10.625403
31.814594 16.571796 -10.284407
31.772257 16.549726 -10.115129
57.073608 18.592499 -2.755519
8.109377 -1.435000 0.416737
31.730137 16.527773 -9.946653
16.516506 5.017383 -0.470058
95.709061 11.813125 -5.722165
31.688196 16.505938 -9.778967
31.440561 16.376953 -8.788713
30.123573 15.449101 -3.032765
31.399918 16.355782 -8.626212
31.360100 16.335039 -8.464563
31.320627 16.314451 -8.303654
8.575029 -3.298594 1.033182
96.851791 4.861758 -8.557280
7.947422 3.556094 1.033182
16.508469 4.310898 -0.054677
31.125696 16.212929 -7.508977
31.048820 16.172890 -7.195539
20.383680 3.347969 1.033182
31.010612 16.152967 -7.039748
35.949501 16.656952 -9.687824
7.446560 -1.265352 0.416737
30.972525 16.133163 -6.884543
30.934624 16.113398 -6.729933
30.896826 16.093750 -6.575900
12.160830 -4.400977 1.033182
30.746304 16.015312 -6.111066
33.267597 16.512070 -9.474064
30.577448 15.927343 -5.649387
30.521652 15.898281 -5.496935
30.466177 15.869374 -5.345217
42.351822 16.976641 -7.872727
30.251286 15.757500 -4.745793
55.941467 19.867344 -10.147980
42.277939 17.258751 -9.814689
29.888212 15.568359 -3.721906
10.426875 -3.465821 1.033182
29.836237 15.541289 -3.577961
29.732721 15.487344 -3.291808
16.935438 3.241641 1.033182
29.477402 15.354375 -2.586252
6.690680 1.419648 0.416737
16.516506 5.017383 -2.608913
29.377451 15.302304 -2.307824
29.330185 15.277695 -2.169465
29.142761 15.180078 -1.620744
29.096317 15.155859 -1.484709
28.712381 14.955860 -0.812863
28.569414 14.881406 -0.681691
11.538372 0.427070 0.409936
40.613472 16.279804 -4.671818
91.203522 -30.315819 1.033187
28.292549 14.737188 -0.423058
16.413464 -4.041679 -0.902560
77.167137 -25.650156 1.033187
29.466984 -6.422735 1.033182
28.160236 14.668281 -0.295461
35.816532 15.463436 -2.192258
25.302372 4.664257 1.033182
46.720284 18.358437 -11.967932
28.029131 14.599999 -0.169016
27.899220 14.532305 -0.043713
15.816445 8.238593 1.033182
43.593956 -14.490507 1.033182
40.100971 -13.329452 1.033182
44.829182 17.615351 -9.468986
16.517914 5.141249 -1.039509
37.125038 -12.340234 1.033182
19.329687 -7.284570 1.033182
27.258905 14.198788 0.565887
97.400192 11.395858 -11.494380
16.516506 5.017383 -2.036878
17.037741 -3.835820 -1.758761
13.635690 1.595391 0.416737
27.006514 14.067344 0.802010
32.857475 16.568789 -10.037296
5.581409 -0.052188 0.299883
30.359531 -10.091406 1.033182
44.877148 9.821249 1.033182
26.337841 13.719023 0.876727
9.272890 3.503555 1.033182
31.008736 14.367696 0.333826
25.176983 13.114336 1.022859
16.409595 -4.381797 -0.200191
17.355577 3.922461 -3.694583
25.673086 -8.533632 1.033182
37.080986 16.591797 -8.684377
23.994295 12.498281 1.033182
24.415195 -8.115508 1.033187
16.410856 -4.270898 -4.076522
22.234072 -7.390508 1.033182
92.148560 -18.210466 -15.389153
21.282373 -7.074180 1.033182
19.890703 10.360781 1.033182
18.978477 -5.889727 1.033182
20.408134 -6.783594 1.033182
19.073622 9.935195 1.033182
13.336435 -0.566953 0.095321
5.999412 -1.731367 0.416737
19.602236 -6.515703 1.033182
18.320429 9.542891 1.033182
41.955215 16.486015 -5.152795
12.717597 3.775664 1.033182
18.165646 -6.038203 1.033182
25.512793 3.326055 1.033182
16.977774 8.843515 1.033182
10.989053 4.151953 1.033182
17.522655 -5.824453 1.033182
7.535035 1.648789 0.416737
76.426025 -6.317305 -7.325037
16.376823 8.530469 1.033182
13.546435 4.810976 1.033182
84.675026 18.530897 0.819275
16.923065 -5.625156 1.033182
90.430450 -19.111210 -7.826707
16.362608 -5.438867 1.033182
15.292636 7.965742 1.033182
15.837557 -5.264336 1.033182
22.973164 11.584531 1.033182
14.801913 7.710117 1.033182
14.341230 7.470156 1.033182
13.907891 7.244453 1.033182
16.402927 -4.968086 0.092207
13.499512 7.031719 1.033182
20.340870 -3.598828 1.033182
14.031533 -4.663984 1.033182
94.568428 -16.731640 -16.926035
36.202969 16.198942 -5.994279
27.958366 14.806718 -0.559533
13.272079 -4.411562 1.033182
16.513803 4.780039 -5.300117
12.404198 6.461171 1.033182
16.404213 -4.855195 -4.175151
12.921718 -4.295117 1.033182
12.588955 -4.184492 1.033182
36.099525 16.449453 -8.001105
11.469970 5.974570 1.033182
5.614084 0.430117 0.263112
14.093778 6.875781 1.033182
10.919795 5.687969 1.033182
19.728575 -6.122500 1.033182
11.409569 -3.792461 1.033182
16.511126 4.544570 -0.899364
10.843193 -1.259336 0.416737
5.092998 -0.692422 0.095320
10.418575 5.426914 1.033182
10.896875 -3.622070 1.033182
16.509748 4.423164 -4.904915
10.184316 5.304883 1.033182
9.960020 5.188047 1.033182
16.510780 6.740078 1.033182
96.519119 -15.093360 -4.571421
9.745058 5.076094 1.033182
10.206240 -3.392500 1.033182
9.790821 -3.254414 1.033182
8.967608 4.671133 1.033182
5.620773 -0.090938 0.260850
8.791504 4.579375 1.033182
9.225127 -3.066367 1.033182
38.018017 16.413906 -6.902521
8.621875 4.491055 1.033182
14.806341 -1.814844 0.427578
9.050185 -3.008203 1.033182
34.669674 -2.865781 0.791737
18.210241 -0.774141 0.095321
47.650150 -16.174765 1.033182
8.881445 -2.952148 1.033182
27.843475 11.588711 1.033182
8.420917 0.253867 0.416737
8.300673 4.323750 1.033182
16.498386 5.012031 1.033182
15.379101 -4.995586 1.033182
8.718584 -2.897969 1.033182
8.561270 -2.845703 1.033182
8.001445 4.167891 1.033182
16.410856 -4.270898 -1.881038
16.515203 4.902930 -0.897885
7.859355 4.093867 1.033182
6.482366 -2.154922 0.593631
17.355570 3.922461 -4.372263
4.811133 -0.786055 0.095321
6.192975 -2.058750 0.544629
5.561456 -0.386172 0.322672
30.603504 15.695235 -4.346193
7.460283 3.886016 1.033182
5.927763 -1.970586 0.499720
16.413464 -4.041679 -1.320729
6.811953 -1.484961 0.416737
7.214766 3.758086 1.033182
94.714577 -18.717577 -19.885666
13.041766 0.482578 0.339535
94.059380 -18.588085 -18.936964
93.792503 -18.535351 -18.479059
93.264450 -18.430977 -17.573006
40.336712 16.466249 -6.107492
16.745274 1.283125 -5.572404
92.019333 -18.184921 -14.973816
46.254459 -5.052539 -3.162006
91.817825 -18.145119 -14.155967
16.516506 5.017383 0.891165
32.549549 16.413515 -8.847921
15.762286 5.485703 1.033182
91.672958 -18.116482 -13.350910
91.600792 -18.102226 -12.949988
90.508179 -17.245001 -5.898983
91.530029 -18.088242 -12.550261
91.180786 -18.019218 -10.566779
32.140965 15.159726 -1.219806
13.241200 3.176484 1.033182
11.613780 3.111602 1.033182
16.410856 -4.270898 0.713599
90.973244 -17.978201 -9.387985
90.904366 -17.964609 -8.996835
17.355574 3.922461 -3.919582
90.767090 -17.937502 -8.217113
10.285830 5.105312 1.033182
5.711517 0.096992 0.258589
90.698685 -17.923944 -7.828511
5.558623 -0.645625 0.279005
90.630409 -17.910431 -7.440722
16.517914 5.141288 -0.896847
90.562263 -17.896990 -7.053738
9.799893 -0.680312 0.095321
94.751030 11.694883 -4.887668
90.494263 -17.883553 -6.667535
13.550478 -4.799492 1.033182
90.426399 -17.870155 -6.282101
90.358681 -17.856758 -5.897425
16.511127 4.544570 -5.134877
90.156258 -17.816755 -4.747764
9.963408 -1.157148 0.416737
90.338478 -17.852774 -2.095661
90.428040 -17.870468 -1.716547
90.640076 -17.912346 -1.336956
91.828583 -18.147228 -0.567616
19.471455 -6.896679 1.033182
12.501249 4.439765 1.033182
95.144821 -18.802616 0.653044
94.286598 -18.633125 1.033187
28.115828 4.801093 1.033182
60.994507 -12.053829 1.033187
35.390079 15.835233 -4.109474
7.065840 -0.255508 0.316814
5.617591 0.243438 0.261190
46.254452 -5.052539 -2.009845
54.568462 -10.783906 1.033182
13.662733 2.990078 1.033182
49.365852 -9.755742 1.033182
45.067574 -8.906328 1.033182
41.456512 -8.192694 1.033177
31.385799 -6.202500 1.033182
47.022671 -3.886836 -6.322087
35.484062 15.608203 -2.985881
16.412212 -4.151836 -3.428543
29.586601 -5.846914 1.033182
80.074898 -14.167422 1.033182
25.240507 -4.988046 1.033182
22.985674 -4.542422 1.033182
7.115900 -0.021289 0.265139
34.174858 16.672499 -10.499661
22.001787 -4.348008 1.033182
16.409594 -4.381797 0.433584
32.579037 15.366366 -2.260725
21.097988 -4.169375 1.033182
18.779697 -3.711250 1.033182
18.114981 -3.579883 1.033182
17.495127 -3.457383 1.033182
16.915712 -3.342891 1.033182
16.509748 4.423164 -4.757430
15.383994 -3.040156 1.033182
14.505840 -2.866640 1.033182
14.102606 -2.786953 1.033182
12.682314 1.653359 0.416737
22.126663 0.959336 0.270739
46.877373 2.353242 -7.079878
7.085431 0.449297 0.292358
10.434205 -2.061953 0.556066
9.195393 -1.817148 0.433303
45.779896 3.822969 1.033182
91.479889 -19.333010 -12.574741
16.410856 -4.270898 -5.317584
8.875733 -1.754258 0.416774
8.459186 -1.671953 0.416737
8.079073 -1.596836 0.416737
7.901137 -1.561641 0.416737
49.941677 6.164258 1.033182
19.608662 3.220703 1.033182
7.730606 -1.527969 0.416737
89.877647 -18.994373 -4.746312
7.567018 -1.495625 0.416737
8.207109 -2.906875 1.033182
7.259025 -1.434766 0.416737
41.268715 14.362578 0.746238
7.113874 -1.406094 0.416737
9.969649 4.619375 1.033182
6.974171 -1.378477 0.416737
46.653004 4.193671 0.882510
46.254452 -5.052539 -6.833651
49.431316 -9.418436 1.033182
6.839609 -1.351875 0.416737
9.404620 0.531875 0.123268
6.709910 -1.326250 0.416737
7.043447 -0.627148 0.377901
12.471864 -3.421563 1.033182
6.584804 -1.301524 0.416737
6.464049 -1.277656 0.416737
8.800654 -3.184922 1.033182
6.347422 -1.254609 0.416737
47.347603 18.604921 -12.773469
6.125710 -1.210781 0.416737
7.038291 0.119687 0.401399
5.681455 -1.122891 0.354218
5.548391 -1.096602 0.368945
35.625072 7.560273 1.033172
46.636650 -3.237422 -7.252095
16.414810 -3.923320 -0.554811
46.636585 -3.237422 -6.664930
46.636559 -3.237422 -6.469598
47.069916 -3.267500 -6.322103
46.240742 -5.370780 -0.858606
76.498878 -5.310430 -7.324739
76.498833 -5.310391 -7.006638
17.037731 -3.835820 -2.336360
76.498802 -5.310430 -6.688737
76.498756 -5.310430 -6.371027
91.973824 -20.046873 -13.835606
13.083086 -3.775117 1.033182
14.379570 -4.990859 1.033182
92.062408 -6.390977 0.946453
13.201054 -3.339336 1.033182
81.123291 -5.631446 1.033182
9.385302 3.762109 1.033182
47.035549 -3.265234 0.701118
40.423588 -2.806133 0.608736
30.493176 -2.116797 0.430158
27.989958 -1.943047 0.416737
26.055464 -1.808750 0.416737
24.370325 -1.691797 0.416737
21.577044 -1.497891 0.416737
16.511126 4.544570 -1.252403
43.173065 16.964569 -7.010412
17.547152 -1.218164 0.416737
16.413464 -4.041679 -3.780937
16.043978 -1.113789 0.349676
92.230331 20.184374 -0.562678
14.599248 -1.013477 0.275830
46.228001 -5.666407 -1.242504
14.543954 -1.009609 0.331142
11.740166 -0.815000 0.095321
6.584762 -0.238359 0.416737
11.293789 -0.784023 0.095321
46.716953 -1.370196 -6.468262
22.986856 0.390781 0.229519
16.408232 -4.501679 -2.800149
41.558144 7.660859 1.033172
10.879765 -0.755274 0.095321
5.580668 -0.423047 0.303775
9.485431 -0.658476 0.095321
9.190204 -0.637969 0.095321
9.151650 3.809023 1.033182
16.408232 -4.501679 0.365648
12.036913 5.577265 1.033182
8.912510 -0.618711 0.095321
8.650448 -0.600508 0.131773
16.513803 4.780039 -2.960588
58.789505 18.708399 -2.291291
76.745186 2.315547 -4.789565
8.770635 -0.608828 0.186591
8.894365 -0.617422 0.243025
9.007168 3.134766 1.033182
17.166336 -0.729766 0.095321
9.021807 -0.626289 0.301149
10.631396 4.340000 1.033182
9.087481 4.433437 1.033182
8.580548 -0.595859 0.303183
12.693418 3.856172 1.033182
16.408232 -4.501679 -0.409482
8.541946 -0.593164 0.369373
48.875561 17.357929 -3.821867
8.541946 -0.593164 0.405808
8.404523 -0.583633 0.416737
5.529110 1.173281 0.368019
6.779542 1.626133 0.416737
8.215553 -0.570547 0.416737
7.221777 -0.501289 0.258589
7.115793 -0.493945 0.268508
7.065060 -0.490430 0.319216
5.894476 1.875547 0.429235
7.042492 -0.488867 0.344911
94.166031 -15.384843 -5.279540
7.042492 -0.488867 0.405826
6.823260 -0.473867 0.416737
15.783457 6.942617 1.033182
6.573247 -0.456523 0.416737
6.454649 -0.448281 0.416737
5.698628 -0.395703 0.258589
16.504469 3.959140 -5.544656
5.620245 -0.390234 0.263920
93.230835 -15.232031 -2.509737
5.600553 -0.388867 0.283600
93.213989 10.906054 -3.274957
5.580957 -0.387539 0.303183
98.725906 5.583164 -14.475964
5.635309 1.509609 0.416737
14.544178 1.214531 0.393564
46.890305 2.651797 -7.280348
93.243507 -16.497189 -7.598002
8.612543 -0.425273 0.270326
46.890236 2.651836 -6.690467
46.890217 2.651836 -6.494233
25.335175 -4.482461 1.033182
18.742645 8.684296 1.033172
91.100876 -17.357927 -3.249781
47.106419 2.664063 -6.321937
95.605385 5.406680 -10.851980
30.770643 15.780937 -4.795617
95.432587 -15.591757 -8.536197
97.147316 5.493867 -10.198604
96.508209 5.457734 -9.737235
7.089932 0.072148 0.290461
42.051991 17.166485 -9.380940
16.508467 4.310898 0.086666
7.381044 3.420000 1.033182
96.535759 5.459296 -9.338049
96.576942 5.461640 -8.940014
96.307068 5.446367 -8.118201
16.408232 -4.501679 -4.231073
9.368608 -1.657773 0.416737
95.916382 5.424257 -7.691889
46.653008 4.193632 -6.675823
94.410469 5.339102 -6.024062
8.537073 0.369922 0.366291
5.171445 -0.808711 0.095321
94.232117 5.329024 -5.234843
13.674602 -1.217617 0.416737
39.887451 15.070429 -0.003615
94.565407 5.347891 -4.858138
94.199013 5.327148 -2.897136
6.586070 0.198516 0.416737
16.413464 -4.041679 0.145297
16.507097 4.190352 -2.943594
94.028084 5.317500 -2.505572
16.507097 4.190352 -4.379269
7.746594 -1.744180 0.428711
93.688141 5.298281 -1.726818
44.261181 17.741991 -11.015432
98.104073 5.547968 -0.943938
90.015030 -19.023397 -5.511871
98.480888 5.569297 -0.536485
9.887276 1.688398 0.416737
70.358086 3.978985 1.033182
26.065828 1.652695 0.416737
62.075031 3.510547 1.033182
31.569830 5.185273 1.033182
42.190907 2.386054 1.033182
28.012558 1.584180 0.416737
10.848221 2.076523 0.481720
22.907652 1.295430 0.416737
5.617692 1.035469 0.258589
14.343388 5.094024 1.033182
38.214520 16.498749 -7.457971
20.556660 1.162539 0.341609
17.616041 0.996289 0.275075
30.244673 15.251249 -1.914758
10.039777 -0.294492 0.376485
13.865488 0.784141 0.030061
13.217422 0.747461 0.030061
12.626826 0.714063 0.030061
24.151035 -4.272930 1.033182
12.086348 0.683516 0.030061
11.132186 0.629570 0.030061
7.116371 -0.351211 0.266944
10.316337 0.583398 0.030061
9.951181 0.562773 0.030061
43.303074 -15.337773 1.033187
8.757959 -3.300508 1.033182
66.253525 21.083632 -9.644640
9.685351 0.547734 0.039203
29.918692 15.344022 -2.464172
9.496494 0.537031 0.095766
9.225850 0.521758 0.176799
8.969326 0.507226 0.253605
8.886758 0.502578 0.278329
8.576870 0.484844 0.301392
8.536503 0.482578 0.403567
46.240738 -5.370781 -2.970707
8.222184 0.464766 0.416737
16.402927 -4.968086 -0.969839
7.036369 0.397969 0.342412
76.865662 -0.230078 -6.383505
16.513803 4.780039 -1.678254
6.960768 0.393438 0.416737
6.828769 0.385977 0.416737
16.511127 4.544570 -0.758106
6.578557 0.371836 0.416737
6.459862 0.365117 0.416737
53.265018 19.327421 -9.738351
37.364342 -11.595585 1.033182
35.407784 16.134216 -5.739709
16.513803 4.780039 0.238623
5.616348 0.317500 0.261805
5.577146 0.315313 0.301025
5.557688 0.314219 0.320491
16.515203 4.902930 -1.963914
16.402927 -4.968086 -0.545639
79.971237 14.741874 1.033172
69.302895 12.775272 1.033182
32.170502 11.196172 1.033182
98.188530 7.524610 -16.494017
17.037741 -3.835820 -1.830862
61.144085 11.271289 1.033182
54.702244 10.083829 1.033182
10.079884 -3.052851 1.033182
13.600224 3.262617 1.033182
49.486870 9.122421 1.033182
31.462717 5.799844 1.033182
28.050205 5.170781 1.033182
19.671503 -2.811406 1.033182
10.722782 4.797930 1.033182
50.018490 5.506289 1.033182
23.042002 4.247578 1.033182
22.055721 4.065781 1.033182
21.149696 3.898750 1.033182
80.243546 13.179688 1.033182
42.701973 16.779453 -6.370763
20.314522 3.744805 1.033182
12.727090 5.799375 1.033182
11.337861 5.531289 1.033182
18.825731 3.470352 1.033182
5.165801 -0.843984 0.095321
36.117344 16.734726 -10.244338
16.517914 5.141288 -3.915735
18.159384 3.347500 1.033182
30.114138 14.691445 -0.248410
92.513985 -16.368122 -8.715990
16.507097 4.190352 -1.603000
16.957178 3.125899 1.033182
16.413046 3.025625 1.033182
12.271028 2.262109 0.587910
6.161215 -1.558789 0.416737
9.864190 1.818398 0.416737
9.603794 1.770430 0.416737
9.356466 1.724570 0.416737
14.550990 -0.135742 0.328372
9.121257 1.681172 0.416737
8.897273 1.639922 0.416737
93.330925 -16.512695 -6.819320
8.683735 1.600547 0.416737
29.897909 14.839531 -0.527228
5.556509 0.987812 0.315949
16.509747 4.423164 0.230589
7.920501 1.459844 0.416737
7.585562 1.398086 0.416737
7.037417 1.297305 0.334515
16.507097 4.190352 -0.900727
16.509748 4.423164 -0.052761
16.404213 -4.855195 -1.675652
7.030169 1.295977 0.363751
7.030169 1.295977 0.394566
32.786201 14.939647 -0.478029
7.225029 -0.451992 0.258589
6.856372 1.263672 0.416737
10.035037 1.308203 0.387987
5.554938 1.023906 0.317213
65.603806 21.371330 -11.899729
5.535340 1.020273 0.336840
75.587875 24.054104 -21.701565
75.093773 23.896835 -21.220861
74.606720 23.741877 -20.747278
73.537674 23.401640 -19.791584
22.241552 -2.880469 1.033182
37.569736 16.220350 -5.635314
18.084587 -6.276797 1.033182
16.516506 5.017383 -3.836746
71.914566 22.885159 -18.067951
71.652496 22.801796 -17.681007
93.741920 9.072148 -1.728933
5.654697 1.435273 0.416737
14.269912 6.502383 1.033182
70.590370 22.463749 -16.159689
70.329941 22.380861 -15.787776
16.405590 -4.734023 -5.496094
17.037737 -3.835820 0.988091
69.800270 22.212341 -15.050774
69.539101 22.129217 -14.687287
69.288261 22.049374 -14.328567
10.138145 -3.590859 1.033182
69.058357 21.976210 -13.976447
13.183535 -4.669531 1.033182
68.380119 21.760389 -12.937034
68.163765 21.691523 -12.597063
67.730347 21.553595 -11.923938
31.597485 15.415117 -2.669445
67.513008 21.484453 -11.590716
67.298470 21.416174 -11.260217
67.086884 21.348867 -10.932386
16.515202 4.902930 0.384589
66.876862 21.282028 -10.606985
7.504678 3.477265 1.033182
94.155991 11.016289 -6.820388
36.590374 16.953905 -11.774211
66.668381 21.215664 -10.283967
65.998657 21.002541 -9.322277
7.400526 -1.511523 0.416737
6.471581 1.238516 0.416737
65.736969 20.919258 -9.001633
54.489716 11.175390 1.033182
65.477470 20.836678 -8.683781
16.404213 -4.855195 -2.809196
16.408232 -4.501679 -0.268869
64.750626 20.605389 -7.750676
92.774567 -19.606604 -16.726662
64.497520 20.524843 -7.443283
8.417149 -0.358047 0.416737
64.037041 20.378281 -6.839826
49.609726 -8.428359 1.033182
63.814686 20.307541 -6.542082
11.838106 5.207187 1.033182
63.362274 20.163593 -5.952345
62.418896 19.863398 -5.067082
10.117564 0.507852 0.261612
61.744804 19.648867 -4.488791
61.378952 19.532421 -4.202766
60.824760 19.356092 -3.647863
60.236328 19.168825 -3.101789
59.971878 19.084686 -2.833527
58.234173 18.531719 -2.028449
46.640121 3.894727 -2.594146
56.989174 18.135508 -1.269836
11.898480 -1.299648 0.416737
56.273285 17.907696 -1.024816
54.595078 17.373594 -0.556008
46.626263 3.573164 -5.691424
38.823505 16.158672 -4.709181
53.088371 16.894140 -0.112834
51.030472 16.239296 0.288895
48.658314 17.655859 -5.531857
48.340752 15.383359 0.631941
94.273560 9.123632 -9.170644
47.579678 15.141133 0.810076
45.260719 14.403203 0.910877
34.703636 11.043633 1.033182
16.515203 4.902930 0.887131
27.179775 8.649336 1.033182
10.189571 4.721289 1.033182
22.326990 7.105077 1.033182
21.371307 6.800937 1.033182
9.927714 -3.516328 1.033182
18.935722 6.025898 1.033182
76.745193 2.315508 -4.472360
18.241543 5.804961 1.033182
14.943155 4.755352 1.033182
94.225288 20.620937 -1.743058
14.090156 4.483906 1.033182
14.607110 0.056016 0.273190
70.142784 6.788359 1.033182
13.698476 4.359258 1.033182
16.509748 4.423164 -2.807681
16.414810 -3.923320 -5.297820
13.327539 4.241211 1.033182
12.641553 4.022930 1.033182
12.021142 3.825469 1.033182
45.338070 -7.407343 1.033182
11.732627 3.733672 1.033182
55.434803 -4.582187 1.033182
69.225029 -13.189881 1.033182
16.413464 -4.041679 -5.601225
11.457247 3.646016 1.033182
10.701416 3.405508 1.033182
49.708820 18.037031 -6.285998
11.538509 0.196211 0.409114
60.485622 19.703983 -5.480695
16.509748 4.423164 0.728359
10.470439 3.332031 1.033182
33.405300 16.580391 -9.994348
10.248877 3.261484 1.033182
16.404209 -4.855195 -2.099658
16.517914 5.141288 0.462895
7.137689 2.271172 0.597983
16.402927 -4.968086 -3.026474
6.692532 2.129531 0.519741
5.748544 1.829140 0.416737
16.515203 4.902930 -5.083935
5.652467 1.798555 0.416737
5.559354 1.768906 0.416737
16.509748 4.423164 0.585853
7.824199 0.496094 0.274808
36.654091 16.983398 -11.971027
10.120440 -0.430273 0.261512
36.527027 16.924530 -11.578508
14.669413 5.542500 1.033182
36.401386 16.866327 -11.190344
36.343300 16.839415 -10.999006
36.229755 16.786797 -10.619748
32.621220 14.083906 0.833123
36.061550 16.708864 -10.058020
35.892933 16.630741 -9.503869
29.619911 12.091445 1.033182
46.653008 4.193632 -0.663684
36.311131 16.247343 -6.342033
35.780590 16.578711 -9.138615
35.449989 16.425468 -8.063400
35.344242 16.376484 -7.711984
35.091240 16.259296 -6.847805
34.991501 16.213047 -6.507082
34.941914 16.190077 -6.337746
16.508467 4.310898 -3.949910
16.408232 -4.501679 -5.035223
34.892563 16.167227 -6.169074
7.037010 0.305117 0.371931
16.414810 -3.923320 -0.833343
34.794384 16.121717 -5.833684
34.696918 16.076565 -5.500832
12.659449 1.820156 0.416737
34.452042 15.963124 -4.995021
7.850839 -3.020000 1.033182
34.781971 -10.794180 1.033187
34.150772 15.823515 -4.335275
16.517914 5.141288 -3.623876
34.075047 15.788437 -4.172316
22.130800 3.634922 1.033182
36.996895 16.858320 -10.792210
33.771870 15.647968 -3.528351
